ncols        152
nrows        32
xllcorner    410220.971304
yllcorner    4813362.16379
cellsize     10.000000000000
NODATA_value -9999
213.80902099609375 212.25177001953125 210.4322662353515625 208.9455718994140625 208.2587127685546875 208.594207763671875 209.8618011474609375 211.7251434326171875 213.8224334716796875 215.91845703125 217.870574951171875 219.6446533203125 221.298431396484375 222.9228973388671875 224.6429443359375 226.5965728759765625 228.853271484375 231.33074951171875 233.7776641845703125 235.825042724609375 237.2346954345703125 237.9494781494140625 237.9767913818359375 237.2888641357421875 235.8000640869140625 233.377105712890625 229.93902587890625 225.444915771484375 219.92425537109375 213.5435638427734375 206.509246826171875 199.1247406005859375 191.671478271484375 184.3159942626953125 177.1874847412109375 170.3814239501953125 164.0279693603515625 158.4618072509765625 154.215972900390625 151.733367919921875 152.9873046875 156.4286956787109375 161.271942138671875 167.0564727783203125 173.3751068115234375 179.9399566650390625 186.5201873779296875 192.954833984375 199.1362762451171875 204.9565887451171875 210.354736328125 215.3002166748046875 219.780181884765625 223.8399200439453125 227.5336151123046875 230.9309539794921875 234.13623046875 237.190093994140625 240.062408447265625 242.71331787109375 245.05731201171875 247.0301361083984375 248.617767333984375 249.7651519775390625 250.4227294921875 250.592498779296875 250.329620361328125 249.7630615234375 249.066162109375 248.4312286376953125 247.9801483154296875 247.7006378173828125 247.4815826416015625 247.1686553955078125 246.6088409423828125 245.7126312255859375 244.4809722900390625 242.9914703369140625 241.4535980224609375 240.1726531982421875 239.4612884521484375 239.5762176513671875 240.5629119873046875 242.2123565673828125 244.0938873291015625 245.789215087890625 247.1424407958984375 248.217926025390625 249.2339324951171875 250.3966522216796875 251.7408294677734375 253.13446044921875 254.4115142822265625 255.4083099365234375 256.038482666015625 256.27056884765625 256.088104248046875 255.5359039306640625 254.770172119140625 254.107330322265625 253.9951934814453125 254.9566802978515625 257.4010009765625 261.369964599609375 266.4952392578125 272.09613037109375 277.363006591796875 281.6834716796875 284.715545654296875 286.5377197265625 287.5247802734375 288.02392578125 288.199859619140625 288.069305419921875 287.576934814453125 286.646087646484375 285.16290283203125 283.041595458984375 280.230377197265625 276.749359130859375 272.873321533203125 269.082916259765625 265.93731689453125 264.07757568359375 263.9857177734375 265.743377685546875 269.038970947265625 273.3436279296875 278.069122314453125 282.538665771484375 286.09149169921875 288.1983642578125 288.420867919921875 286.537445068359375 282.704986572265625 277.439605712890625 271.305694580078125 264.749053955078125 258.188568115234375 251.922149658203125 246.0438690185546875 240.600311279296875 235.601898193359375 231.0949249267578125 227.4127044677734375 225.1153564453125 224.730712890625 226.6276092529296875 230.4253692626953125 235.586517333984375 241.511474609375 247.754119873046875
207.8262481689453125 205.8088531494140625 203.7137298583984375 202.129730224609375 201.492889404296875 201.960723876953125 203.3779754638671875 205.36749267578125 207.55401611328125 209.697296142578125 211.6571807861328125 213.4033966064453125 214.9973602294921875 216.524658203125 218.098388671875 219.846282958984375 221.834991455078125 224.0066070556640625 226.1697540283203125 228.0511016845703125 229.4599456787109375 230.3123931884765625 230.589202880859375 230.2297210693359375 229.14984130859375 227.1905059814453125 224.25799560546875 220.284332275390625 215.276641845703125 209.3475494384765625 202.6667633056640625 195.508697509765625 188.1467132568359375 180.7697906494140625 173.5565338134765625 166.6929168701171875 160.454132080078125 155.349029541015625 152.1047210693359375 151.34320068359375 154.3500518798828125 158.9066314697265625 164.6095428466796875 171.0208587646484375 177.789398193359375 184.642242431640625 191.3723602294921875 197.855865478515625 203.99237060546875 209.7029571533203125 214.9649810791015625 219.754150390625 224.0754852294921875 228.001220703125 231.5797576904296875 234.86846923828125 237.9739227294921875 240.928741455078125 243.7104644775390625 246.302459716796875 248.61871337890625 250.59613037109375 252.2336273193359375 253.481475830078125 254.280517578125 254.6104888916015625 254.4972076416015625 254.0439605712890625 253.3990478515625 252.7398834228515625 252.2109527587890625 251.8515625 251.6025238037109375 251.33074951171875 250.88134765625 250.1385498046875 249.0558319091796875 247.662628173828125 246.125152587890625 244.7192535400390625 243.7586669921875 243.5505523681640625 244.247955322265625 245.7393951416015625 247.6308135986328125 249.488006591796875 251.0946197509765625 252.417877197265625 253.58343505859375 254.7635345458984375 256.0360107421875 257.3438720703125 258.576507568359375 259.59814453125 260.308929443359375 260.642913818359375 260.5390625 259.993316650390625 259.104461669921875 258.152252197265625 257.54437255859375 257.8531494140625 259.55389404296875 262.96380615234375 267.80072021484375 273.389801025390625 278.91339111328125 283.71533203125 287.363525390625 289.783782958984375 291.20709228515625 291.885650634765625 292.004638671875 291.6781005859375 290.963592529296875 289.865203857421875 288.2978515625 286.181060791015625 283.451568603515625 280.10968017578125 276.419036865234375 272.8634033203125 269.9913330078125 268.39605712890625 268.456695556640625 270.21600341796875 273.439239501953125 277.67132568359375 282.321319580078125 286.655731201171875 289.955078125 291.675262451171875 291.424957275390625 289.05181884765625 284.7723388671875 279.148529052734375 272.75543212890625 266.02728271484375 259.35699462890625 253.0240020751953125 247.12554931640625 241.7316436767578125 236.880615234375 232.615753173828125 229.2285003662109375 227.1931304931640625 226.8686370849609375 228.46453857421875 231.83441162109375 236.608123779296875 242.2655181884765625 248.3775787353515625
201.4136810302734375 198.98486328125 196.6830596923828125 195.082000732421875 194.57110595703125 195.2177734375 196.7962799072265625 198.89959716796875 201.1481475830078125 203.309539794921875 205.2639007568359375 206.994171142578125 208.5596160888671875 210.0336151123046875 211.50262451171875 213.059814453125 214.7545623779296875 216.56121826171875 218.361846923828125 219.9721527099609375 221.2679595947265625 222.1480712890625 222.585540771484375 222.4973602294921875 221.7909393310546875 220.324676513671875 217.9705352783203125 214.6147308349609375 210.21893310546875 204.834716796875 198.590911865234375 191.7284698486328125 184.5051422119140625 177.1581268310546875 169.9358673095703125 163.117218017578125 157.131256103515625 152.63763427734375 150.751708984375 152.4120330810546875 156.363983154296875 161.7969818115234375 168.199981689453125 175.111724853515625 182.2139129638671875 189.2543792724609375 196.04730224609375 202.49871826171875 208.525482177734375 214.068267822265625 219.1324615478515625 223.7153472900390625 227.8491973876953125 231.6251983642578125 235.0825042724609375 238.2649688720703125 241.2812652587890625 244.1604156494140625 246.8878936767578125 249.4729156494140625 251.841064453125 253.9254150390625 255.7201080322265625 257.165252685546875 258.180511474609375 258.718292236328125 258.7764892578125 258.438323974609375 257.8353271484375 257.135986328125 256.506805419921875 256.038543701171875 255.7298736572265625 255.47711181640625 255.1324310302734375 254.55450439453125 253.650299072265625 252.3967132568359375 250.9055633544921875 249.4161834716796875 248.2381744384765625 247.7293853759765625 248.138946533203125 249.4441375732421875 251.30767822265625 253.3024444580078125 255.1579132080078125 256.740325927734375 258.074127197265625 259.284881591796875 260.47308349609375 261.654205322265625 262.795379638671875 263.803741455078125 264.5665283203125 264.983154296875 264.962249755859375 264.474090576171875 263.5555419921875 262.46807861328125 261.552825927734375 261.3494873046875 262.424102783203125 265.18426513671875 269.527069091796875 274.880828857421875 280.47027587890625 285.6231689453125 289.820648193359375 292.822418212890625 294.692901611328125 295.575714111328125 295.650726318359375 295.109283447265625 294.118316650390625 292.772979736328125 291.033233642578125 288.846923828125 286.1683349609375 282.999176025390625 279.596466064453125 276.424591064453125 273.98480224609375 272.782958984375 273.080718994140625 274.895416259765625 278.074798583984375 282.249114990234375 286.8310546875 291.0218505859375 294.032440185546875 295.297882080078125 294.4747314453125 291.5087890625 286.702972412109375 280.67205810546875 274.004669189453125 267.115692138671875 260.35894775390625 253.9771881103515625 248.0579986572265625 242.6899566650390625 237.9376068115234375 233.8438568115234375 230.6720123291015625 228.8355712890625 228.5770416259765625 229.98974609375 233.0733795166015625 237.580780029296875 243.0504913330078125 249.0662841796875
194.7742767333984375 191.9972991943359375 189.549652099609375 187.976837158203125 187.604736328125 188.4161834716796875 190.12359619140625 192.3072357177734375 194.5984649658203125 196.77630615234375 198.736846923828125 200.4736480712890625 202.0403289794921875 203.499481201171875 204.9148406982421875 206.336395263671875 207.781402587890625 209.246612548828125 210.676361083984375 211.9360198974609375 212.964569091796875 213.7255401611328125 214.196319580078125 214.3072052001953125 213.9522857666015625 212.9847564697265625 211.2422943115234375 208.56732177734375 204.8573455810546875 200.0809326171875 194.33013916015625 187.8190460205078125 180.7910919189453125 173.543060302734375 166.41595458984375 159.804595947265625 154.2630157470703125 150.37420654296875 150.8652496337890625 153.8846893310546875 158.7540283203125 164.943389892578125 171.91864013671875 179.2184906005859375 186.5527801513671875 193.692535400390625 200.474517822265625 206.83135986328125 212.698211669921875 218.03277587890625 222.87066650390625 227.2415618896484375 231.200103759765625 234.84332275390625 238.194244384765625 241.2844696044921875 244.22857666015625 247.06097412109375 249.7830352783203125 252.432586669921875 254.950225830078125 257.26373291015625 259.34173583984375 261.0838623046875 262.370330810546875 263.132110595703125 263.3541259765625 263.1087646484375 262.525299072265625 261.7725830078125 261.02685546875 260.41424560546875 259.9874267578125 259.6876220703125 259.38995361328125 258.9451904296875 258.223846435546875 257.151092529296875 255.7746429443359375 254.2826690673828125 252.9722900390625 252.2378997802734375 252.401458740234375 253.5197906494140625 255.3328399658203125 257.435089111328125 259.50628662109375 261.321197509765625 262.809417724609375 264.04052734375 265.112762451171875 266.104400634765625 267.0743408203125 267.99285888671875 268.75701904296875 269.2425537109375 269.34661865234375 269.045166015625 268.325592041015625 267.340087890625 266.35321044921875 265.823394775390625 266.32000732421875 268.32330322265625 271.950927734375 276.827850341796875 282.266448974609375 287.600830078125 292.226531982421875 295.746978759765625 298.05499267578125 299.164154052734375 299.221771240234375 298.4786376953125 297.1995849609375 295.563568115234375 293.57989501953125 291.246490478515625 288.564544677734375 285.557464599609375 282.500244140625 279.841278076171875 277.993194580078125 277.292236328125 277.86920166015625 279.758270263671875 282.903594970703125 287.017242431640625 291.51373291015625 295.5321044921875 298.212554931640625 298.951019287109375 297.45196533203125 293.8126220703125 288.4384765625 281.980987548828125 275.040283203125 268.007293701171875 261.188385009765625 254.777252197265625 248.8404998779296875 243.47601318359375 238.765533447265625 234.748748779296875 231.6760711669921875 229.941864013671875 229.746978759765625 231.1609649658203125 234.19476318359375 238.638397216796875 244.06512451171875 250.054443359375
187.9918365478515625 184.9506683349609375 182.40985107421875 180.8781890869140625 180.6184539794921875 181.557830810546875 183.35345458984375 185.58221435546875 187.9068450927734375 190.1140899658203125 192.1078338623046875 193.8885650634765625 195.4962005615234375 196.9801025390625 198.3885955810546875 199.7320404052734375 200.976470947265625 202.1234130859375 203.1475067138671875 204.01617431640625 204.731597900390625 205.31036376953125 205.7563934326171875 206.0207061767578125 205.9916839599609375 205.50860595703125 204.3801116943359375 202.40020751953125 199.3901824951171875 195.2400665283203125 189.9948272705078125 183.85015869140625 177.058563232421875 169.9829559326171875 163.07366943359375 156.86865234375 152.11328125 149.6220703125 151.6231231689453125 155.7070465087890625 161.402557373046875 168.2338409423828125 175.6615142822265625 183.23992919921875 190.709197998046875 197.8675689697265625 204.5742034912109375 210.78466796875 216.4527740478515625 221.5611724853515625 226.18597412109375 230.3868865966796875 234.220489501953125 237.7747344970703125 241.051239013671875 244.0712890625 246.960479736328125 249.77069091796875 252.529571533203125 255.3070068359375 258.060760498046875 260.7047119140625 263.166473388671875 265.279296875 266.870819091796875 267.855987548828125 268.22283935546875 268.0531005859375 267.485687255859375 266.688262939453125 265.831024169921875 265.0537109375 264.454803466796875 264.036651611328125 263.712615966796875 263.345794677734375 262.786346435546875 261.913330078125 260.70611572265625 259.289306640625 257.93646240234375 257.060455322265625 257.040771484375 258.010162353515625 259.77734375 261.955230712890625 264.18621826171875 266.1724853515625 267.76824951171875 268.992462158203125 269.934173583984375 270.71038818359375 271.465545654296875 272.230865478515625 272.97039794921875 273.568023681640625 273.93389892578125 273.968841552734375 273.604217529296875 272.881134033203125 271.974334716796875 271.251190185546875 271.23968505859375 272.472625732421875 275.257293701171875 279.456298828125 284.5230712890625 289.82928466796875 294.705108642578125 298.616058349609375 301.292144775390625 302.60955810546875 302.66986083984375 301.75897216796875 300.22149658203125 298.301116943359375 296.05511474609375 293.542236328125 290.828765869140625 287.986602783203125 285.3155517578125 283.236480712890625 282.044525146484375 281.884429931640625 282.765380859375 284.73870849609375 287.832244873046875 291.82647705078125 296.15350341796875 299.9293212890625 302.228668212890625 302.370635986328125 300.1260986328125 295.789398193359375 289.85491943359375 282.99737548828125 275.818939208984375 268.68182373046875 261.84124755859375 255.4383392333984375 249.5106353759765625 244.1549072265625 239.45953369140625 235.45208740234375 232.3631591796875 230.5904388427734375 230.405120849609375 231.9875640869140625 235.2053680419921875 239.80487060546875 245.3538055419921875 251.4077911376953125
181.0756072998046875 177.8601837158203125 175.267303466796875 173.7689971923828125 173.5905303955078125 174.6215057373046875 176.4820098876953125 178.748779296875 181.1075439453125 183.3576202392578125 185.4068603515625 187.252349853515625 188.9165191650390625 190.43267822265625 191.8361968994140625 193.089447021484375 194.139434814453125 194.9983978271484375 195.68304443359375 196.2224273681640625 196.670257568359375 197.0919036865234375 197.5270538330078125 197.944976806640625 198.2312469482421875 198.208465576171875 197.6564178466796875 196.324737548828125 193.969757080078125 190.4119110107421875 185.6545867919921875 179.879364013671875 173.356109619140625 166.522186279296875 159.94696044921875 154.30194091796875 150.4338226318359375 149.47198486328125 152.780487060546875 157.8074951171875 164.21905517578125 171.57012939453125 179.3246612548828125 187.0659637451171875 194.5716705322265625 201.6703338623046875 208.24072265625 214.259185791015625 219.703765869140625 224.5973358154296875 229.060638427734375 233.1640167236328125 236.94464111328125 240.464569091796875 243.6973419189453125 246.6630096435546875 249.5108795166015625 252.3137359619140625 255.1271209716796875 258.061614990234375 261.09063720703125 264.108154296875 267.000701904296875 269.5264892578125 271.44769287109375 272.659576416015625 273.162261962890625 273.068511962890625 272.54150390625 271.7418212890625 270.81591796875 269.90106201171875 269.134521484375 268.578521728515625 268.192657470703125 267.866668701171875 267.444061279296875 266.765869140625 265.74859619140625 264.452850341796875 263.11968994140625 262.167388916015625 262.0189208984375 262.867584228515625 264.57379150390625 266.76885986328125 269.074737548828125 271.14727783203125 272.78741455078125 273.976715087890625 274.813446044921875 275.4171142578125 276.00958251953125 276.673736572265625 277.47235107421875 278.296142578125 278.996124267578125 279.421234130859375 279.45751953125 279.066802978515625 278.335418701171875 277.536712646484375 277.135040283203125 277.672760009765625 279.576446533203125 282.9346923828125 287.407470703125 292.441802978515625 297.326690673828125 301.40728759765625 304.2774658203125 305.713623046875 305.7904052734375 304.797576904296875 303.096771240234375 300.96014404296875 298.494293212890625 295.832244873046875 293.117919921875 290.490875244140625 288.274566650390625 286.8226318359375 286.277313232421875 286.60638427734375 287.745208740234375 289.757171630859375 292.708831787109375 296.442169189453125 300.449676513671875 303.8558349609375 305.67181396484375 305.1441650390625 302.163177490234375 297.189910888671875 290.780853271484375 283.61468505859375 276.2835693359375 269.119598388671875 262.33062744140625 256.007080078125 250.15191650390625 244.8545684814453125 240.203765869140625 236.2054443359375 233.0577850341796875 231.1517486572265625 230.8776397705078125 232.6644439697265625 236.1675262451171875 241.0477752685546875 246.823486328125 253.012451171875
174.0803375244140625 170.7658233642578125 168.1527252197265625 166.6768951416015625 166.5469818115234375 167.6389312744140625 169.550872802734375 171.854766845703125 174.2483673095703125 176.539947509765625 178.6351318359375 180.5229644775390625 182.2045745849609375 183.6953277587890625 185.021270751953125 186.129730224609375 186.9957275390625 187.6374664306640625 188.09381103515625 188.4282684326171875 188.7290802001953125 189.0962982177734375 189.59771728515625 190.2158050537109375 190.82940673828125 191.241851806640625 191.2091217041015625 190.4468994140625 188.665985107421875 185.642852783203125 181.3475494384765625 175.9376678466796875 169.7074432373046875 163.18170166015625 157.061676025390625 152.1436004638671875 149.2520294189453125 150.47125244140625 154.4438629150390625 160.1677093505859375 167.1331024169921875 174.8524627685546875 182.7946319580078125 190.5774688720703125 198.0185546875 204.974456787109375 211.3451690673828125 217.132720947265625 222.3459320068359375 227.055450439453125 231.4210357666015625 235.50341796875 239.298126220703125 242.829010009765625 246.0429840087890625 248.972015380859375 251.79486083984375 254.5958709716796875 257.4482421875 260.509002685546875 263.77685546875 267.1376953125 270.455108642578125 273.41583251953125 275.69183349609375 277.14111328125 277.7763671875 277.7694091796875 277.3367919921875 276.62518310546875 275.735626220703125 274.78607177734375 273.9376220703125 273.3023681640625 272.886077880859375 272.608551025390625 272.31085205078125 271.804779052734375 270.958953857421875 269.78375244140625 268.486907958984375 267.479339599609375 267.213470458984375 267.929931640625 269.530181884765625 271.659942626953125 273.936309814453125 275.990509033203125 277.607330322265625 278.738677978515625 279.5343017578125 280.1246337890625 280.723388671875 281.474822998046875 282.4423828125 283.541229248046875 284.590301513671875 285.399749755859375 285.82574462890625 285.7822265625 285.28741455078125 284.525909423828125 283.876556396484375 283.845306396484375 284.911834716796875 287.34246826171875 291.02740478515625 295.5306396484375 300.137054443359375 304.1036376953125 306.939910888671875 308.38568115234375 308.487274169921875 307.504669189453125 305.758056640625 303.50653076171875 300.90380859375 298.167755126953125 295.53179931640625 293.203887939453125 291.518646240234375 290.714569091796875 290.757659912109375 291.48138427734375 292.775604248046875 294.698211669921875 297.343353271484375 300.621246337890625 304.105712890625 306.9532470703125 308.13238525390625 306.863616943359375 303.234954833984375 297.770599365234375 291.048095703125 283.7318115234375 276.390655517578125 269.3272705078125 262.7083740234375 256.57830810546875 250.90234375 245.7560882568359375 241.22686767578125 237.3015594482421875 234.1452484130859375 232.1338958740234375 231.7148895263671875 233.52691650390625 237.213287353515625 242.344024658203125 248.354217529296875 254.7025604248046875
167.15142822265625 163.81829833984375 161.217559814453125 159.7495574951171875 159.6225128173828125 160.7209014892578125 162.6356658935546875 164.9382476806640625 167.329559326171875 169.62017822265625 171.7000579833984375 173.5531463623046875 175.1413116455078125 176.4987335205078125 177.654022216796875 178.5884552001953125 179.295440673828125 179.800384521484375 180.15191650390625 180.4273223876953125 180.731048583984375 181.1790618896484375 181.8522186279296875 182.7384185791015625 183.707183837890625 184.5444183349609375 184.988861083984375 184.7342529296875 183.4667816162109375 180.934906005859375 177.0703887939453125 172.015472412109375 166.10302734375 159.9501190185546875 154.3902587890625 150.3343353271484375 149.050537109375 151.6910858154296875 156.3849029541015625 162.6761322021484375 170.040802001953125 177.967987060546875 185.95245361328125 193.6561279296875 200.9305877685546875 207.6576385498046875 213.763427734375 219.2836456298828125 224.2633209228515625 228.818023681640625 233.1330413818359375 237.2472076416015625 241.100128173828125 244.671142578125 247.891326904296875 250.8118896484375 253.630523681640625 256.423980712890625 259.265777587890625 262.3641357421875 265.761260986328125 269.36865234375 273.054931640625 276.43896484375 279.080291748046875 280.773284912109375 281.526947021484375 281.6146240234375 281.3582763671875 280.872894287109375 280.178192138671875 279.36236572265625 278.601348876953125 278.0394287109375 277.71246337890625 277.5548095703125 277.39794921875 277.0338134765625 276.3045654296875 275.197418212890625 273.89984130859375 272.808868408203125 272.396392822265625 272.94476318359375 274.387939453125 276.372528076171875 278.526611328125 280.47607421875 282.060516357421875 283.232879638671875 284.100921630859375 284.80657958984375 285.55810546875 286.520416259765625 287.75311279296875 289.17279052734375 290.574798583984375 291.743865966796875 292.528411865234375 292.8280029296875 292.6197509765625 292.00750732421875 291.265838623046875 290.826568603515625 291.173095703125 292.681884765625 295.43505859375 299.156402587890625 303.188232421875 306.766082763671875 309.38555908203125 310.771240234375 310.91400146484375 309.989501953125 308.260406494140625 305.97283935546875 303.322418212890625 300.60791015625 298.146331787109375 296.19427490234375 295.0606689453125 294.858856201171875 295.4095458984375 296.435516357421875 297.774658203125 299.466949462890625 301.619354248046875 304.204193115234375 306.90496826171875 308.965667724609375 309.329132080078125 307.304046630859375 303.163116455078125 297.401519775390625 290.5731201171875 283.3123779296875 276.15557861328125 269.372894287109375 263.09149169921875 257.311370849609375 251.956146240234375 247.07293701171875 242.74078369140625 238.940948486328125 235.8104400634765625 233.6995697021484375 233.0866546630859375 234.709320068359375 238.3879852294921875 243.645599365234375 249.829345703125 256.326995849609375
160.52386474609375 157.2428436279296875 154.6744842529296875 153.189666748046875 152.9986724853515625 154.0040283203125 155.8086395263671875 158.00628662109375 160.2874755859375 162.4668426513671875 164.38983154296875 166.0438232421875 167.42767333984375 168.5755462646484375 169.5238189697265625 170.2816314697265625 170.862457275390625 171.301971435546875 171.6552886962890625 172.00189208984375 172.445648193359375 173.09979248046875 174.0423431396484375 175.257904052734375 176.6088714599609375 177.87255859375 178.78021240234375 179.012176513671875 178.2342376708984375 176.1707763671875 172.728118896484375 168.047119140625 162.506988525390625 156.8169708251953125 151.9302520751953125 148.7577056884765625 149.62677001953125 153.0802154541015625 158.430572509765625 165.192413330078125 172.8182220458984375 180.80181884765625 188.688140869140625 196.1922149658203125 203.2000732421875 209.6182098388671875 215.4002685546875 220.620574951171875 225.3629913330078125 229.7743682861328125 234.0519256591796875 238.21002197265625 242.1351165771484375 245.7632904052734375 249.01641845703125 251.9586181640625 254.7898406982421875 257.564178466796875 260.340423583984375 263.369232177734375 266.749237060546875 270.449188232421875 274.363006591796875 278.06231689453125 281.018890380859375 282.955718994140625 283.817352294921875 284.003448486328125 284.034149169921875 283.941375732421875 283.61248779296875 283.124969482421875 282.6893310546875 282.45001220703125 282.425872802734375 282.5224609375 282.549652099609375 282.29400634765625 281.6002197265625 280.4678955078125 279.09307861328125 277.87139892578125 277.280059814453125 277.623687744140625 278.879486083984375 280.690704345703125 282.723388671875 284.618316650390625 286.1959228515625 287.42327880859375 288.389434814453125 289.259307861328125 290.250274658203125 291.51116943359375 293.077239990234375 294.853546142578125 296.6092529296875 298.11260986328125 299.2303466796875 299.879119873046875 300.019866943359375 299.684234619140625 299.02862548828125 298.374359130859375 298.160125732421875 298.817169189453125 300.574432373046875 303.323211669921875 306.53131103515625 309.513031005859375 311.814483642578125 313.132232666015625 313.326751708984375 312.461212158203125 310.751434326171875 308.4588623046875 305.828460693359375 303.230072021484375 301.048065185546875 299.557220458984375 298.98516845703125 299.30853271484375 300.25140380859375 301.45892333984375 302.71295166015625 304.0164794921875 305.4703369140625 307.10272216796875 308.7362060546875 309.796630859375 309.163848876953125 306.50048828125 302.00244140625 296.13226318359375 289.412384033203125 282.435272216796875 275.691162109375 269.408843994140625 263.6708984375 258.4224853515625 253.536041259765625 249.007293701171875 244.88751220703125 241.1746673583984375 238.0063629150390625 235.7264251708984375 234.8402862548828125 236.1205596923828125 239.622039794921875 244.87542724609375 251.1546478271484375 257.7772216796875
154.38275146484375 151.191192626953125 148.654022216796875 147.1147613525390625 146.77215576171875 147.5535888671875 149.077484130859375 150.9987030029296875 152.992950439453125 154.8677825927734375 156.4994354248046875 157.8682098388671875 158.985260009765625 159.885589599609375 160.61334228515625 161.200103759765625 161.6796417236328125 162.1008148193359375 162.5253753662109375 163.0303497314453125 163.70916748046875 164.6582489013671875 165.9368743896484375 167.5170745849609375 169.257110595703125 170.9381256103515625 172.2945404052734375 173.001861572265625 172.712677001953125 171.1328277587890625 168.151763916015625 163.921600341796875 158.86419677734375 153.76080322265625 149.6771087646484375 148.086029052734375 150.2788848876953125 154.51605224609375 160.45526123046875 167.58489990234375 175.3361053466796875 183.2352142333984375 190.8943328857421875 198.087188720703125 204.7390289306640625 210.7826080322265625 216.19854736328125 221.097198486328125 225.5946197509765625 229.85693359375 234.0826416015625 238.262939453125 242.245391845703125 245.9342193603515625 249.2427825927734375 252.2302093505859375 255.0859527587890625 257.83514404296875 260.522491455078125 263.4156494140625 266.655517578125 270.268829345703125 274.173828125 277.94927978515625 281.06378173828125 283.2227783203125 284.288818359375 284.614105224609375 285.049468994140625 285.444061279296875 285.57098388671875 285.589263916015625 285.7471923828125 286.125091552734375 286.66339111328125 287.17315673828125 287.437225341796875 287.255645751953125 286.5013427734375 285.22137451171875 283.650054931640625 282.217926025390625 281.434478759765625 281.609710693359375 282.766357421875 284.522857666015625 286.5333251953125 288.4195556640625 289.973602294921875 291.19622802734375 292.20330810546875 293.2080078125 294.45013427734375 296.038726806640625 297.95538330078125 300.083221435546875 302.162567138671875 303.961669921875 305.396240234375 306.424041748046875 307.004791259765625 307.10272216796875 306.737274169921875 306.084014892578125 305.50262451171875 305.4500732421875 306.24664306640625 307.917694091796875 310.131256103515625 312.383026123046875 314.296844482421875 315.524749755859375 315.77423095703125 314.9691162109375 313.28472900390625 311.0205078125 308.47625732421875 306.08489990234375 304.27099609375 303.29290771484375 303.2559814453125 304.008026123046875 305.21759033203125 306.4818115234375 307.52789306640625 308.3116455078125 308.9151611328125 309.39984130859375 309.69207763671875 309.550567626953125 308.003936767578125 304.742401123046875 299.99224853515625 294.17950439453125 287.77874755859375 281.323150634765625 275.232086181640625 269.67840576171875 264.68988037109375 260.132843017578125 255.8148956298828125 251.66058349609375 247.67791748046875 243.9099884033203125 240.5474853515625 237.9720611572265625 236.7363433837890625 237.557525634765625 240.762969970703125 245.925994873046875 252.2425537109375 258.971588134765625
148.7568359375 145.649688720703125 143.1179656982421875 141.468048095703125 140.8509521484375 141.2240447998046875 142.295745849609375 143.74688720703125 145.3066558837890625 146.78631591796875 148.0710601806640625 149.129302978515625 149.9677734375 150.61944580078125 151.1361083984375 151.566070556640625 151.9619293212890625 152.387939453125 152.914764404296875 153.6176910400390625 154.575592041015625 155.856201171875 157.487030029296875 159.422088623046875 161.5171356201171875 163.5672607421875 165.324371337890625 166.47332763671875 166.6718292236328125 165.62261962890625 163.2021942138671875 159.568359375 155.1663360595703125 150.802520751953125 147.4221343994140625 147.81884765625 150.894256591796875 155.8697967529296875 162.3219146728515625 169.705657958984375 177.4501495361328125 185.139068603515625 192.463714599609375 199.2589874267578125 205.4918060302734375 211.1190185546875 216.146148681640625 220.7164306640625 224.9676361083984375 229.0743865966796875 233.224578857421875 237.3884735107421875 241.3970794677734375 245.1374359130859375 248.5084686279296875 251.5523834228515625 254.4326629638671875 257.1573486328125 259.769317626953125 262.526336669921875 265.5802001953125 268.980987548828125 272.675384521484375 276.30682373046875 279.414642333984375 281.745025634765625 283.205169677734375 284.04876708984375 284.78411865234375 285.39739990234375 285.887451171875 286.524139404296875 287.441131591796875 288.627410888671875 289.930419921875 290.985595703125 291.54144287109375 291.427490234375 290.55133056640625 289.034637451171875 287.166656494140625 285.45794677734375 284.52618408203125 284.6971435546875 285.97430419921875 287.854156494140625 289.9122314453125 291.770294189453125 293.222900390625 294.318084716796875 295.229736328125 296.267486572265625 297.715179443359375 299.601348876953125 301.809295654296875 304.208251953125 306.52899169921875 308.5662841796875 310.309356689453125 311.765716552734375 312.893035888671875 313.59649658203125 313.736480712890625 313.30316162109375 312.553558349609375 311.974761962890625 311.949005126953125 312.59906005859375 313.787506103515625 315.230194091796875 316.669586181640625 317.739471435546875 318.01947021484375 317.303253173828125 315.71527099609375 313.57586669921875 311.22705078125 309.14300537109375 307.753021240234375 307.2657470703125 307.677459716796875 308.7393798828125 310.081756591796875 311.27972412109375 312.019561767578125 312.209014892578125 311.92572021484375 311.26580810546875 310.204254150390625 308.676300048828125 306.134918212890625 302.339447021484375 297.473785400390625 291.89666748046875 286.0325927734375 280.34124755859375 275.129791259765625 270.49615478515625 266.395660400390625 262.588226318359375 258.816864013671875 254.95343017578125 250.9656829833984375 246.9499359130859375 243.1754608154296875 240.0886383056640625 238.3610687255859375 238.6822967529296875 241.599029541015625 246.6701507568359375 252.998931884765625 259.821014404296875
143.5106201171875 140.443634033203125 137.8330841064453125 135.94207763671875 134.94171142578125 134.81817626953125 135.356903076171875 136.2869415283203125 137.3774871826171875 138.4558563232421875 139.4100341796875 140.190582275390625 140.78717041015625 141.227935791015625 141.574310302734375 141.8826904296875 142.21966552734375 142.6681060791015625 143.3096160888671875 144.2156524658203125 145.445343017578125 147.028961181640625 148.9604339599609375 151.1808624267578125 153.5438232421875 155.8635711669921875 157.92108154296875 159.4329833984375 160.0908050537109375 159.6198577880859375 157.8875579833984375 155.029083251953125 151.50140380859375 148.176544189453125 146.1539764404296875 147.7410888671875 151.5453338623046875 157.0926361083984375 163.9012451171875 171.3873138427734375 178.992828369140625 186.3662872314453125 193.27813720703125 199.624114990234375 205.4115142822265625 210.6148834228515625 215.2596282958984375 219.517333984375 223.5436248779296875 227.5041046142578125 231.563751220703125 235.679046630859375 239.68310546875 243.4600830078125 246.8927154541015625 249.988983154296875 252.883056640625 255.59619140625 258.17730712890625 260.843353271484375 263.72271728515625 266.864013671875 270.24755859375 273.6099853515625 276.597198486328125 279.017913818359375 280.80712890625 282.112884521484375 283.212677001953125 284.175323486328125 285.081573486328125 286.191802978515625 287.7000732421875 289.578155517578125 291.611541748046875 293.246673583984375 294.14141845703125 294.154632568359375 293.21832275390625 291.518829345703125 289.38629150390625 287.50115966796875 286.544464111328125 286.94049072265625 288.456298828125 290.482025146484375 292.556854248046875 294.310638427734375 295.552825927734375 296.384674072265625 297.0458984375 297.9910888671875 299.558685302734375 301.643035888671875 304.01361083984375 306.562713623046875 309.03582763671875 311.253509521484375 313.285125732421875 315.17657470703125 316.88116455078125 318.287841796875 319.102386474609375 319.079864501953125 318.3487548828125 317.48980712890625 316.922607421875 316.797821044921875 317.1092529296875 317.7960205078125 318.714324951171875 319.501739501953125 319.7574462890625 319.1783447265625 317.825927734375 315.9683837890625 313.961151123046875 312.305267333984375 311.390289306640625 311.33489990234375 312.041778564453125 313.223297119140625 314.510711669921875 315.48651123046875 315.800872802734375 315.30352783203125 314.081512451171875 312.265655517578125 309.9544677734375 307.22210693359375 303.822540283203125 299.66082763671875 294.890533447265625 289.76336669921875 284.663848876953125 279.96942138671875 275.809417724609375 272.18792724609375 268.955718994140625 265.786224365234375 262.412445068359375 258.691253662109375 254.55914306640625 250.1334228515625 245.7418060302734375 241.9169158935546875 239.47613525390625 239.2680206298828125 241.96929931640625 247.0051116943359375 253.3853607177734375 260.3209228515625
138.393341064453125 135.2960357666015625 132.5307464599609375 130.352020263671875 128.9451751708984375 128.3322601318359375 128.3778228759765625 128.8548431396484375 129.551483154296875 130.3141021728515625 131.035614013671875 131.644256591796875 132.096527099609375 132.404998779296875 132.6519775390625 132.9005584716796875 133.22283935546875 133.7235260009765625 134.4942779541015625 135.5950927734375 137.057373046875 138.869659423828125 140.9986572265625 143.3831024169921875 145.881378173828125 148.3342742919921875 150.5444488525390625 152.28057861328125 153.313720703125 153.4191131591796875 152.4493255615234375 150.49017333984375 147.9657745361328125 145.720672607421875 145.0604248046875 147.6629791259765625 152.09869384765625 158.0387725830078125 165.0079803466796875 172.424652099609375 179.7696990966796875 186.7537078857421875 193.2154388427734375 199.1042938232421875 204.462738037109375 209.280120849609375 213.5951385498046875 217.5941619873046875 221.4380645751953125 225.27801513671875 229.2520751953125 233.3039093017578125 237.278228759765625 241.0680389404296875 244.5470733642578125 247.689239501953125 250.60223388671875 253.3246002197265625 255.910247802734375 258.527862548828125 261.26422119140625 264.15618896484375 267.214111328125 270.262176513671875 273.059417724609375 275.483978271484375 277.487152099609375 279.1429443359375 280.61224365234375 281.95916748046875 283.269378662109375 284.78314208984375 286.6849365234375 288.93414306640625 291.310394287109375 293.27252197265625 294.4686279296875 294.7572021484375 294.124359130859375 292.5316162109375 290.40655517578125 288.469451904296875 287.546661376953125 288.177734375 289.869873046875 291.919403076171875 293.871246337890625 295.402374267578125 296.36236572265625 296.900787353515625 297.31658935546875 298.090667724609375 299.61083984375 301.744293212890625 304.1671142578125 306.75360107421875 309.276580810546875 311.594451904296875 313.8248291015625 316.049774169921875 318.189239501953125 320.169647216796875 321.65338134765625 322.145263671875 321.607696533203125 320.806549072265625 320.1309814453125 319.686859130859375 319.53387451171875 319.78759765625 320.30413818359375 320.652984619140625 320.783050537109375 320.3858642578125 319.4039306640625 317.972198486328125 316.435394287109375 315.30596923828125 314.883026123046875 315.15582275390625 315.949005126953125 317.017547607421875 318.031097412109375 318.61163330078125 318.371734619140625 317.081695556640625 314.927520751953125 312.101806640625 308.85296630859375 305.323150634765625 301.424102783203125 297.193817138671875 292.796356201171875 288.386138916015625 284.271728515625 280.726898193359375 277.686737060546875 274.982086181640625 272.38751220703125 269.60369873046875 266.40283203125 262.6448974609375 258.25225830078125 253.3399505615234375 248.253692626953125 243.5988311767578125 240.3437652587890625 239.54779052734375 242.05364990234375 247.0620269775390625 253.4987030029296875 260.55438232421875
133.0822296142578125 129.908294677734375 127.0119781494140625 124.62567138671875 122.93585968017578125 121.990081787109375 121.7142791748046875 121.917816162109375 122.38140106201171875 122.9849395751953125 123.64270782470703125 124.258392333984375 124.7269744873046875 125.0117645263671875 125.23209381103515625 125.51428985595703125 125.897369384765625 126.5078277587890625 127.439300537109375 128.735870361328125 130.401031494140625 132.3666229248046875 134.576171875 136.9832916259765625 139.4428558349609375 141.8737640380859375 144.016143798828125 145.73846435546875 146.97027587890625 147.56353759765625 147.33990478515625 146.307037353515625 144.8115234375 143.5545654296875 144.482452392578125 147.59942626953125 152.42730712890625 158.5272369384765625 165.42926025390625 172.596527099609375 179.5750579833984375 186.1318206787109375 192.1538543701171875 197.6287384033203125 202.622528076171875 207.140045166015625 211.2246856689453125 215.0539093017578125 218.7799530029296875 222.5361785888671875 226.438720703125 230.42724609375 234.3586578369140625 238.1373443603515625 241.641387939453125 244.8224639892578125 247.76251220703125 250.504058837890625 253.1003570556640625 255.6857757568359375 258.309234619140625 260.992156982421875 263.769561767578125 266.53662109375 269.1444091796875 271.532562255859375 273.670501708984375 275.60137939453125 277.42010498046875 279.147125244140625 280.83831787109375 282.681243896484375 284.813140869140625 287.183074951171875 289.61785888671875 291.64599609375 292.979339599609375 293.4129638671875 292.934234619140625 291.62109375 289.82220458984375 288.196075439453125 287.53436279296875 288.2076416015625 289.7850341796875 291.5831298828125 293.161407470703125 294.248138427734375 294.821929931640625 295.10833740234375 295.44354248046875 296.236419677734375 297.76727294921875 299.90582275390625 302.3477783203125 304.915252685546875 307.410858154296875 309.743255615234375 312.011077880859375 314.2733154296875 316.47357177734375 318.50872802734375 320.090972900390625 320.925048828125 321.04443359375 320.857757568359375 320.6107177734375 320.407501220703125 320.3621826171875 320.7545166015625 321.303009033203125 321.255828857421875 321.32135009765625 321.014251708984375 320.39276123046875 319.426910400390625 318.40118408203125 317.76690673828125 317.7216796875 318.157806396484375 318.83270263671875 319.59423828125 320.19171142578125 320.31634521484375 319.551666259765625 317.60015869140625 314.713409423828125 311.16986083984375 307.326904296875 303.39453125 299.384521484375 295.43316650390625 291.723968505859375 288.299407958984375 285.332427978515625 282.91900634765625 280.817779541015625 278.74786376953125 276.476470947265625 273.783966064453125 270.52203369140625 266.577728271484375 261.86627197265625 256.491424560546875 250.793182373046875 245.4123992919921875 241.406951904296875 239.9783935546875 242.2202301025390625 247.1064453125 253.5260162353515625 260.667449951171875
127.3286895751953125 124.16809844970703125 121.29016876220703125 118.91269683837890625 117.2252197265625 116.271240234375 115.96324920654296875 116.183135986328125 116.641937255859375 117.2957611083984375 118.10894012451171875 118.97176361083984375 119.69537353515625 120.11517333984375 120.20162200927734375 120.663055419921875 121.231842041015625 122.0439453125 123.172760009765625 124.65703582763671875 126.486663818359375 128.5213775634765625 130.6793060302734375 132.951995849609375 135.1456756591796875 137.572113037109375 139.3372955322265625 140.6932220458984375 141.8492889404296875 142.741119384765625 143.1436920166015625 142.956085205078125 142.4461212158203125 142.321441650390625 144.0919342041015625 147.507171630859375 152.4151153564453125 158.382232666015625 164.9664764404296875 171.704254150390625 178.2260284423828125 184.351806640625 189.9924468994140625 195.1492919921875 199.891876220703125 204.2338104248046875 208.21209716796875 211.9774627685546875 215.66192626953125 219.3801116943359375 223.2332763671875 227.1661224365234375 231.0512542724609375 234.8064727783203125 238.3186798095703125 241.5295257568359375 244.4957122802734375 247.2490997314453125 249.8401947021484375 252.384735107421875 254.917022705078125 257.451873779296875 260.036468505859375 262.616180419921875 265.106903076171875 267.493560791015625 269.762908935546875 271.942138671875 274.08642578125 276.167999267578125 278.196319580078125 280.277740478515625 282.5072021484375 284.78765869140625 286.9923095703125 288.811614990234375 289.99444580078125 290.400787353515625 290.029083251953125 289.010284423828125 287.661346435546875 286.5179443359375 286.16790771484375 286.837493896484375 288.159149169921875 289.564117431640625 290.685089111328125 291.336639404296875 291.580810546875 291.68292236328125 291.99359130859375 292.85107421875 294.4241943359375 296.56719970703125 299.001190185546875 301.51885986328125 303.941162109375 306.198822021484375 308.353851318359375 310.451629638671875 312.46636962890625 314.3114013671875 315.80377197265625 316.7987060546875 317.34002685546875 317.649017333984375 317.9185791015625 318.26727294921875 318.80072021484375 319.650848388671875 320.599853515625 321.126373291015625 321.28802490234375 321.1617431640625 320.8834228515625 320.354034423828125 319.777008056640625 319.45587158203125 319.507476806640625 319.897216796875 320.34576416015625 320.81646728515625 321.10382080078125 320.8914794921875 319.766876220703125 317.411163330078125 314.051727294921875 310.07763671875 305.966705322265625 301.992706298828125 298.223114013671875 294.861083984375 292.09478759765625 289.831695556640625 288.002960205078125 286.473052978515625 284.948455810546875 283.154022216796875 280.899658203125 278.045562744140625 274.52972412109375 270.292999267578125 265.260986328125 259.52960205078125 253.42669677734375 247.5882415771484375 243.0850677490234375 241.17413330078125 242.8999786376953125 247.4312286376953125 253.680084228515625 260.83447265625
121.1943817138671875 118.25969696044921875 115.68592071533203125 113.687896728515625 112.4329376220703125 111.9394989013671875 111.7993316650390625 112.3993377685546875 113.08797454833984375 113.99320220947265625 115.16156005859375 116.507293701171875 117.820404052734375 119.0322723388671875 120.5285491943359375 121.831207275390625 123.04931640625 124.3520965576171875 125.81430816650390625 127.4486541748046875 129.226776123046875 131.039306640625 132.7950286865234375 134.4346160888671875 135.7749786376953125 136.67755126953125 137.2392578125 137.7632293701171875 138.5529937744140625 139.5171356201171875 140.3529510498046875 140.8456878662109375 141.1876373291015625 142.0037384033203125 143.9657135009765625 147.3187408447265625 151.9582061767578125 157.4860992431640625 163.507904052734375 169.64666748046875 175.6326446533203125 181.3406982421875 186.683135986328125 191.647857666015625 196.281646728515625 200.585662841796875 204.5807342529296875 208.3848724365234375 212.105072021484375 215.8387908935546875 219.674835205078125 223.56756591796875 227.4134368896484375 231.148590087890625 234.667510986328125 237.903167724609375 240.8905792236328125 243.6487579345703125 246.2222900390625 248.718048095703125 251.1790924072265625 253.6309967041015625 256.13092041015625 258.65362548828125 261.1524658203125 263.636566162109375 266.093719482421875 268.53070068359375 270.97027587890625 273.33612060546875 275.6126708984375 277.80120849609375 279.894989013671875 281.894500732421875 283.7366943359375 285.21966552734375 286.153472900390625 286.45489501953125 286.151885986328125 285.396881103515625 284.46759033203125 283.7672119140625 283.682891845703125 284.314666748046875 285.347808837890625 286.343597412109375 287.0150146484375 287.265350341796875 287.22088623046875 287.174041748046875 287.475555419921875 288.40472412109375 290.040740966796875 292.201629638671875 294.61767578125 297.063690185546875 299.37860107421875 301.514190673828125 303.494873046875 305.348419189453125 307.075103759765625 308.623748779296875 309.9071044921875 310.8883056640625 311.6378173828125 312.32171630859375 313.108856201171875 314.10491943359375 315.34844970703125 316.82489013671875 318.315704345703125 319.473297119140625 320.22772216796875 320.623382568359375 320.77923583984375 320.6737060546875 320.43450927734375 320.18939208984375 319.984039306640625 320.20660400390625 320.531768798828125 320.99169921875 321.302703857421875 321.082733154296875 319.826080322265625 317.2667236328125 313.667999267578125 309.514801025390625 305.401885986328125 301.6683349609375 298.4129638671875 295.848236083984375 294.077789306640625 292.8463134765625 291.87530517578125 290.897430419921875 289.619720458984375 287.810882568359375 285.342254638671875 282.148956298828125 278.25482177734375 273.669708251953125 268.35223388671875 262.404754638671875 256.14044189453125 250.1497650146484375 245.424774169921875 243.1514892578125 244.2122650146484375 248.192413330078125 254.1457061767578125 261.207611083984375
115.08956146240234375 112.73432159423828125 110.8842620849609375 109.76981353759765625 109.35402679443359375 110.258941650390625 111.86769866943359375 113.4925537109375 115.041259765625 116.60639190673828125 118.2322998046875 119.8900299072265625 121.47573089599609375 122.9787445068359375 124.534881591796875 126.16949462890625 127.826995849609375 129.5210113525390625 131.2361297607421875 132.9379425048828125 134.586090087890625 136.103912353515625 137.42279052734375 138.49127197265625 139.2244415283203125 139.586456298828125 139.57879638671875 139.5354156494140625 139.7490692138671875 140.2446441650390625 140.803802490234375 141.231292724609375 141.6469268798828125 142.4202728271484375 144.14764404296875 147.045379638671875 151.0785675048828125 155.8922576904296875 161.1458740234375 166.5316925048828125 171.8933563232421875 177.1730499267578125 182.27880859375 187.157135009765625 191.8030853271484375 196.1854705810546875 200.301849365234375 204.2356109619140625 208.066558837890625 211.874755859375 215.73822021484375 219.622772216796875 223.4512176513671875 227.1799774169921875 230.7156982421875 233.9865875244140625 237.0081024169921875 239.78509521484375 242.3546905517578125 244.818267822265625 247.239288330078125 249.6727142333984375 252.19317626953125 254.797210693359375 257.449951171875 260.14971923828125 262.8551025390625 265.55072021484375 268.22564697265625 270.73199462890625 273.03887939453125 275.128204345703125 277.010833740234375 278.704437255859375 280.1829833984375 281.3170166015625 281.9886474609375 282.161651611328125 281.89532470703125 281.349761962890625 280.7603759765625 280.405975341796875 280.506683349609375 281.054595947265625 281.782379150390625 282.379302978515625 282.63714599609375 282.532562255859375 282.240509033203125 282.078033447265625 282.38458251953125 283.380340576171875 285.06494140625 287.22186279296875 289.596923828125 291.9609375 294.1630859375 296.1634521484375 297.965850830078125 299.582305908203125 301.0205078125 302.259857177734375 303.2861328125 304.144989013671875 304.957794189453125 305.9010009765625 307.137725830078125 308.74029541015625 310.662261962890625 312.778778076171875 314.8468017578125 316.60693359375 317.968109130859375 318.926116943359375 319.517974853515625 319.779632568359375 319.78826904296875 319.603973388671875 319.377899169921875 319.445770263671875 319.7677001953125 320.416290283203125 321.179351806640625 321.42388916015625 320.36419677734375 317.84637451171875 314.2257080078125 310.077362060546875 306.1075439453125 302.756805419921875 300.15802001953125 298.417510986328125 297.443603515625 296.887725830078125 296.3934326171875 295.64385986328125 294.358367919921875 292.350372314453125 289.54058837890625 285.9202880859375 281.5947265625 276.654998779296875 271.116241455078125 265.09942626953125 258.896881103515625 253.0103302001953125 248.2626953125 245.67913818359375 246.0042877197265625 249.4023284912109375 254.9382476806640625 261.789459228515625
109.7725830078125 108.46652984619140625 107.700408935546875 108.30710601806640625 110.05411529541015625 112.30370330810546875 114.7329864501953125 117.13347625732421875 119.41347503662109375 121.56121826171875 123.581329345703125 125.48058319091796875 127.2502288818359375 128.9512481689453125 130.713714599609375 132.6024322509765625 134.556884765625 136.5091094970703125 138.373321533203125 140.0756988525390625 141.560791015625 142.76861572265625 143.6535186767578125 144.1830596923828125 144.3224639892578125 144.0801849365234375 143.5294342041015625 142.93609619140625 142.5602874755859375 142.47967529296875 142.6090240478515625 142.8258819580078125 143.1201324462890625 143.6626129150390625 144.6759185791015625 146.8740081787109375 150.0518951416015625 153.93994140625 158.260101318359375 162.744171142578125 167.3750457763671875 172.1625518798828125 177.017059326171875 181.833953857421875 186.53680419921875 191.0496826171875 195.344207763671875 199.46826171875 203.4718170166015625 207.41571044921875 211.3634185791015625 215.290802001953125 219.143218994140625 222.8921661376953125 226.4631500244140625 229.79412841796875 232.8827362060546875 235.7175750732421875 238.3304595947265625 240.815155029296875 243.257781982421875 245.752716064453125 248.3908843994140625 251.191802978515625 254.1142578125 257.11431884765625 260.08258056640625 262.97784423828125 265.734100341796875 268.2158203125 270.3919677734375 272.289031982421875 273.93426513671875 275.355438232421875 276.525848388671875 277.362091064453125 277.805206298828125 277.8544921875 277.599853515625 277.203521728515625 276.86077880859375 276.74310302734375 276.932281494140625 277.35009765625 277.7828369140625 278.012603759765625 277.90936279296875 277.512176513671875 277.029327392578125 276.792877197265625 277.11871337890625 278.159393310546875 279.847412109375 281.958587646484375 284.256744384765625 286.522796630859375 288.61517333984375 290.489288330078125 292.130462646484375 293.53759765625 294.72039794921875 295.68060302734375 296.456298828125 297.159698486328125 297.966583251953125 299.085357666015625 300.681671142578125 302.7822265625 305.25836181640625 307.91607666015625 310.49444580078125 312.764739990234375 314.624267578125 316.0250244140625 316.96307373046875 317.49176025390625 317.68939208984375 317.657470703125 317.5916748046875 317.76702880859375 318.34259033203125 319.46893310546875 320.98541259765625 322.1285400390625 321.741119384765625 319.56298828125 316.091064453125 312.03509521484375 308.226776123046875 305.23651123046875 303.233184814453125 302.144805908203125 301.68731689453125 301.4674072265625 301.115509033203125 300.32354736328125 298.839141845703125 296.51507568359375 293.3099365234375 289.25201416015625 284.510894775390625 279.264892578125 273.609375 267.68792724609375 261.76202392578125 256.194580078125 251.6104736328125 248.8096923828125 248.5561065673828125 251.2344818115234375 256.16961669921875 262.647735595703125
106.10076141357421875 106.6658477783203125 108.290985107421875 110.5062103271484375 113.2344970703125 116.334075927734375 119.520843505859375 122.59546661376953125 125.45882415771484375 128.0469970703125 130.340118408203125 132.3784942626953125 134.2344970703125 136.0406341552734375 137.9504852294921875 140.0203704833984375 142.1713714599609375 144.286773681640625 146.235076904296875 147.910491943359375 149.241668701171875 150.172882080078125 150.67138671875 150.7216949462890625 150.3243560791015625 149.5274505615234375 148.4511566162109375 147.332916259765625 146.4164886474609375 145.825347900390625 145.5831756591796875 145.6177978515625 145.8155364990234375 146.1381072998046875 146.6576080322265625 147.546356201171875 149.522247314453125 152.3450927734375 155.59698486328125 158.998565673828125 162.786163330078125 166.9521026611328125 171.42364501953125 176.0717926025390625 180.7459259033203125 185.3256072998046875 189.762176513671875 194.0719146728515625 198.27288818359375 202.40216064453125 206.4959564208984375 210.529449462890625 214.4639434814453125 218.2750701904296875 221.90869140625 225.32958984375 228.520843505859375 231.4639129638671875 234.1988067626953125 236.7962188720703125 239.355743408203125 242.01605224609375 244.859466552734375 247.920318603515625 251.126373291015625 254.3913116455078125 257.55487060546875 260.55731201171875 263.2867431640625 265.634063720703125 267.625030517578125 269.303924560546875 270.7149658203125 271.902374267578125 272.836395263671875 273.4527587890625 273.724700927734375 273.679962158203125 273.4300537109375 273.137451171875 272.963958740234375 272.993011474609375 273.203857421875 273.47686767578125 273.646026611328125 273.563873291015625 273.170013427734375 272.55029296875 271.928192138671875 271.635772705078125 271.95904541015625 272.99334716796875 274.6219482421875 276.62640380859375 278.796417236328125 280.933319091796875 282.902252197265625 284.64886474609375 286.1375732421875 287.35406494140625 288.309844970703125 289.03070068359375 289.596923828125 290.169464111328125 290.96771240234375 292.2254638671875 294.0985107421875 296.5655517578125 299.44158935546875 302.50054931640625 305.4752197265625 308.143463134765625 310.388702392578125 312.135406494140625 313.363494873046875 314.131011962890625 314.5296630859375 314.70367431640625 314.892974853515625 315.39715576171875 316.49334716796875 318.378570556640625 320.864532470703125 323.128021240234375 323.873992919921875 322.34515380859375 319.1668701171875 315.25 311.584625244140625 308.858245849609375 307.25189208984375 306.545745849609375 306.326873779296875 306.170166015625 305.7176513671875 304.697235107421875 302.89288330078125 300.185943603515625 296.567535400390625 292.1014404296875 287.020660400390625 281.57916259765625 275.974609375 270.38330078125 265.002197265625 260.0150146484375 255.7987518310546875 252.935302734375 252.115631103515625 253.879150390625 257.978851318359375 263.878875732421875
106.4454498291015625 108.62021636962890625 111.33362579345703125 114.5231475830078125 118.06069183349609375 121.82012176513671875 125.58013916015625 129.1458892822265625 132.4019775390625 135.261322021484375 137.69915771484375 139.785308837890625 141.6537933349609375 143.49456787109375 145.4824371337890625 147.66400146484375 149.9420623779296875 152.1691741943359375 154.178497314453125 155.835235595703125 157.0529937744140625 157.7724609375 157.9661712646484375 157.629302978515625 156.7855072021484375 155.51434326171875 153.9664764404296875 152.3838653564453125 151.02215576171875 150.058746337890625 149.587615966796875 149.552215576171875 149.7652130126953125 150.0561981201171875 150.3895416259765625 150.854736328125 151.578216552734375 152.474365234375 154.2652130126953125 156.2322998046875 159.1982269287109375 162.5291290283203125 166.3557586669921875 170.569488525390625 174.9549102783203125 179.37786865234375 183.7879180908203125 188.1776123046875 192.5300750732421875 196.85247802734375 201.1302490234375 205.3217926025390625 209.3996124267578125 213.324188232421875 217.0541839599609375 220.58740234375 223.9131317138671875 227.02227783203125 229.9618377685546875 232.786376953125 235.57916259765625 238.4967041015625 241.5890655517578125 244.883209228515625 248.33465576171875 251.8115997314453125 255.1111297607421875 258.137054443359375 260.76690673828125 262.930572509765625 264.708709716796875 266.173583984375 267.380828857421875 268.381134033203125 269.144683837890625 269.613037109375 269.77581787109375 269.682220458984375 269.458221435546875 269.259185791015625 269.212066650390625 269.333343505859375 269.540557861328125 269.6968994140625 269.669891357421875 269.36199951171875 268.76165771484375 267.9805908203125 267.243682861328125 266.86785888671875 267.109283447265625 268.036041259765625 269.518798828125 271.3450927734375 273.32476806640625 275.28082275390625 277.085113525390625 278.67230224609375 279.988800048828125 281.012176513671875 281.7601318359375 282.285064697265625 282.704193115234375 283.210693359375 284.047454833984375 285.449859619140625 287.54052734375 290.247833251953125 293.364227294921875 296.665130615234375 299.89666748046875 302.841339111328125 305.3712158203125 307.391754150390625 308.872039794921875 309.873870849609375 310.50750732421875 310.95733642578125 311.510589599609375 312.513519287109375 314.307464599609375 317.09716796875 320.638824462890625 324.10882568359375 326.216644287109375 325.667083740234375 322.98480224609375 319.301513671875 315.80572509765625 313.265045166015625 311.844940185546875 311.25732421875 311.030426025390625 310.720794677734375 309.994598388671875 308.624359130859375 306.43121337890625 303.315826416015625 299.303955078125 294.4967041015625 289.20343017578125 283.74151611328125 278.373870849609375 273.31744384765625 268.694091796875 264.48236083984375 260.78155517578125 257.96539306640625 256.62921142578125 257.39605712890625 260.465972900390625 265.579193115234375
109.30248260498046875 112.44240570068359375 115.99388885498046875 119.88034820556640625 123.9862518310546875 128.1958465576171875 132.3181610107421875 136.1698760986328125 139.636199951171875 142.6270904541015625 145.120941162109375 147.20867919921875 149.0636444091796875 150.9124298095703125 152.9442291259765625 155.2012481689453125 157.5730133056640625 159.888397216796875 161.951629638671875 163.6039886474609375 164.746673583984375 165.31829833984375 165.29376220703125 164.6735687255859375 163.4919891357421875 161.84771728515625 159.918212890625 157.9677581787109375 156.2814483642578125 155.093902587890625 154.53607177734375 154.541473388671875 154.871002197265625 155.26885986328125 155.5994110107421875 155.8624267578125 156.128509521484375 156.48394775390625 157.029754638671875 157.5749969482421875 158.3372802734375 160.02880859375 162.9006195068359375 166.245849609375 169.9232025146484375 173.81829833984375 177.87249755859375 182.1200714111328125 186.4866943359375 190.924072265625 195.3611907958984375 199.7223052978515625 203.9682769775390625 208.0470428466796875 211.9237823486328125 215.616546630859375 219.12969970703125 222.467376708984375 225.67877197265625 228.8147735595703125 231.91485595703125 235.108306884765625 238.461273193359375 241.9997711181640625 245.6836395263671875 249.33209228515625 252.7076263427734375 255.695770263671875 258.183258056640625 260.14031982421875 261.69281005859375 262.946014404296875 263.971160888671875 264.818634033203125 265.45550537109375 265.827484130859375 265.936798095703125 265.847564697265625 265.69061279296875 265.60760498046875 265.68212890625 265.879302978515625 266.091094970703125 266.182098388671875 266.038299560546875 265.58709716796875 264.840728759765625 263.918975830078125 263.03778076171875 262.5048828125 262.574493408203125 263.3134765625 264.58868408203125 266.183807373046875 267.91522216796875 269.623138427734375 271.19183349609375 272.553558349609375 273.648834228515625 274.456756591796875 275.009063720703125 275.38360595703125 275.72821044921875 276.254974365234375 277.202178955078125 278.764556884765625 281.01123046875 283.83941650390625 287.046783447265625 290.431610107421875 293.769744873046875 296.862396240234375 299.57867431640625 301.811798095703125 303.52191162109375 304.774444580078125 305.69964599609375 306.516998291015625 307.5523681640625 309.1807861328125 311.74835205078125 315.428985595703125 319.944580078125 324.51312255859375 327.93975830078125 328.7423095703125 326.847137451171875 323.585357666015625 320.353271484375 317.98486328125 316.625762939453125 315.974945068359375 315.56005859375 314.944549560546875 313.831878662109375 312.036346435546875 309.422607421875 305.9129638671875 301.578399658203125 296.56085205078125 291.189605712890625 285.876220703125 280.93560791015625 276.59283447265625 272.858184814453125 269.49993896484375 266.372467041015625 263.665740966796875 261.886566162109375 261.714202880859375 263.672607421875 267.82611083984375
113.75272369384765625 117.58885955810546875 121.71746063232421875 126.0634002685546875 130.518524169921875 134.97479248046875 139.2724609375 143.2549591064453125 146.811676025390625 149.8559417724609375 152.37744140625 154.4787750244140625 156.349212646484375 158.23040771484375 160.315185546875 162.6425933837890625 165.0941314697265625 167.4778900146484375 169.5776824951171875 171.222869873046875 172.3079986572265625 172.77325439453125 172.5960540771484375 171.780242919921875 170.3648529052734375 168.453582763671875 166.2474365234375 164.032684326171875 162.121795654296875 160.8083343505859375 160.249847412109375 160.3620147705078125 160.8593902587890625 161.429901123046875 161.8782806396484375 162.1351776123046875 162.2191162109375 162.1854705810546875 162.074127197265625 161.9030914306640625 161.836151123046875 161.98541259765625 162.4425811767578125 164.00604248046875 166.56744384765625 169.4910125732421875 172.7013397216796875 176.49853515625 180.63885498046875 185.006683349609375 189.4817962646484375 193.9380340576171875 198.30810546875 202.5283355712890625 206.5697479248046875 210.4637603759765625 214.22503662109375 217.85809326171875 221.4031219482421875 224.85516357421875 228.2693023681640625 231.7609405517578125 235.4051971435546875 239.210784912109375 243.1164093017578125 246.8970184326171875 250.2959442138671875 253.1993865966796875 255.52313232421875 257.279541015625 258.628173828125 259.696929931640625 260.564483642578125 261.28192138671875 261.8175048828125 262.124603271484375 262.216339111328125 262.16485595703125 262.100189208984375 262.151763916015625 262.361053466796875 262.6458740234375 262.8873291015625 262.960540771484375 262.761627197265625 262.221954345703125 261.354736328125 260.2786865234375 259.201690673828125 258.436676025390625 258.260162353515625 258.756134033203125 259.792236328125 261.13433837890625 262.587921142578125 263.997283935546875 265.26019287109375 266.318023681640625 267.124298095703125 267.675140380859375 268.0245361328125 268.277862548828125 268.606414794921875 269.223876953125 270.331878662109375 272.052093505859375 274.391845703125 277.2308349609375 280.396514892578125 283.730621337890625 287.05218505859375 290.189971923828125 293.01666259765625 295.4212646484375 297.360595703125 298.902587890625 300.196044921875 301.4906005859375 303.13470458984375 305.495086669921875 308.8531494140625 313.308441162109375 318.577728271484375 323.973724365234375 328.47454833984375 330.78375244140625 330.001739501953125 327.4578857421875 324.669952392578125 322.53094482421875 321.1978759765625 320.397735595703125 319.700927734375 318.70501708984375 317.169830322265625 314.92864990234375 311.90643310546875 308.1029052734375 303.5374755859375 298.375213623046875 293.035430908203125 288.023040771484375 283.683349609375 280.20245361328125 277.415985107421875 274.894989013671875 272.33062744140625 269.780426025390625 267.676116943359375 266.71734619140625 267.59814453125 270.6663818359375
119.20014190673828125 123.507049560546875 128.0056915283203125 132.6233367919921875 137.261322021484375 141.825775146484375 146.1894683837890625 150.2256927490234375 153.83050537109375 156.9234161376953125 159.505462646484375 161.6780853271484375 163.6263580322265625 165.590118408203125 167.7565765380859375 170.15887451171875 172.674530029296875 175.0941009521484375 177.1951446533203125 178.813018798828125 179.8386993408203125 180.2140960693359375 179.9181365966796875 178.958160400390625 177.380950927734375 175.292388916015625 172.9017181396484375 170.5074310302734375 168.4483795166015625 167.063201904296875 166.52783203125 166.7432861328125 167.396453857421875 168.1481475830078125 168.7682342529296875 169.1382598876953125 169.224517822265625 169.0438079833984375 168.63037109375 168.040679931640625 167.3815765380859375 166.7547454833984375 166.2958984375 166.0979156494140625 166.1158447265625 167.305267333984375 168.969024658203125 172.12640380859375 175.7032623291015625 179.671142578125 183.9418487548828125 188.31341552734375 192.6711273193359375 196.93280029296875 201.07763671875 205.152313232421875 209.166015625 213.0865020751953125 216.9552459716796875 220.7695770263671875 224.551544189453125 228.3896026611328125 232.3403778076171875 236.40020751953125 240.49725341796875 244.381866455078125 247.7789764404296875 250.577880859375 252.73907470703125 254.32861328125 255.5286712646484375 256.472198486328125 257.23760986328125 257.869110107421875 258.335845947265625 258.60040283203125 258.687652587890625 258.676300048828125 258.6968994140625 258.8743896484375 259.21820068359375 259.5972900390625 259.883636474609375 259.963226318359375 259.73504638671875 259.1207275390625 258.125640869140625 256.865631103515625 255.5467987060546875 254.4983978271484375 254.0291748046875 254.2470703125 255.0248870849609375 256.104766845703125 257.267822265625 258.354827880859375 259.275115966796875 259.98358154296875 260.458404541015625 260.72320556640625 260.858367919921875 261.0025634765625 261.346893310546875 262.08984375 263.367889404296875 265.207427978515625 267.5567626953125 270.29620361328125 273.30224609375 276.48046875 279.707794189453125 282.84722900390625 285.775726318359375 288.375701904296875 290.59991455078125 292.5179443359375 294.2930908203125 296.19256591796875 298.562835693359375 301.724395751953125 305.84051513671875 310.90594482421875 316.656158447265625 322.53338623046875 327.702484130859375 331.09222412109375 331.82855224609375 330.3731689453125 328.27923583984375 326.496826171875 325.23284912109375 324.28436279296875 323.309234619140625 321.951934814453125 320.058990478515625 317.47515869140625 314.1279296875 310.016021728515625 305.2166748046875 299.95782470703125 294.752227783203125 290.185516357421875 286.59381103515625 284.051361083984375 282.189910888671875 280.438812255859375 278.39654541015625 276.035980224609375 273.7235107421875 272.1478271484375 272.081756591796875 274.061767578125
125.14160919189453125 129.75189208984375 134.47454833984375 139.2385711669921875 143.9683380126953125 148.58209228515625 152.9787139892578125 157.06610107421875 160.742095947265625 163.9317474365234375 166.64453125 168.965301513671875 171.0651092529296875 173.1681365966796875 175.44110107421875 177.9076995849609375 180.4541473388671875 182.869873046875 184.9377288818359375 186.5016326904296875 187.4552459716796875 187.741668701171875 187.33953857421875 186.257568359375 184.546112060546875 182.3143768310546875 179.7795867919921875 177.253875732421875 175.0965423583984375 173.6685028076171875 173.1482391357421875 173.4283905029296875 174.197113037109375 175.110198974609375 175.9136505126953125 176.451446533203125 176.6488189697265625 176.4907989501953125 175.998260498046875 175.2183685302734375 174.2208709716796875 173.094207763671875 171.9471435546875 170.8679351806640625 170.0022125244140625 169.602813720703125 169.559356689453125 170.256195068359375 172.5350189208984375 175.5479736328125 179.2536773681640625 183.26593017578125 187.38812255859375 191.504180908203125 195.6021881103515625 199.7446136474609375 203.9081878662109375 208.0946502685546875 212.3207550048828125 216.5371856689453125 220.7105865478515625 224.896209716796875 229.1300201416015625 233.400421142578125 237.6357421875 241.589263916015625 244.9826507568359375 247.7017059326171875 249.7431640625 251.22998046875 252.36334228515625 253.2718658447265625 254.0187835693359375 254.6339569091796875 255.08001708984375 255.3263092041015625 255.412445068359375 255.4292144775390625 255.51361083984375 255.7786407470703125 256.20599365234375 256.64410400390625 256.9588623046875 257.037994384765625 256.771453857421875 256.068695068359375 254.924560546875 253.4517974853515625 251.8633270263671875 250.50494384765625 249.7139892578125 249.6318511962890625 250.1431884765625 250.9588165283203125 251.832977294921875 252.6031951904296875 253.1898193359375 253.5637359619140625 253.7264862060546875 253.726959228515625 253.6700439453125 253.7243804931640625 254.09564208984375 254.956146240234375 256.3643798828125 258.25048828125 260.511566162109375 263.040374755859375 265.77911376953125 268.71868896484375 271.813812255859375 274.970611572265625 278.070159912109375 280.977630615234375 283.628814697265625 286.085418701171875 288.510345458984375 291.164306640625 294.361602783203125 298.32049560546875 303.083221435546875 308.582122802734375 314.57818603515625 320.65008544921875 326.164093017578125 330.2772216796875 332.277557373046875 332.139129638671875 330.89276123046875 329.581390380859375 328.48919677734375 327.497406005859375 326.3790283203125 324.820770263671875 322.686981201171875 319.834991455078125 316.160125732421875 311.71075439453125 306.667572021484375 301.35552978515625 296.3768310546875 292.37945556640625 289.648468017578125 288.041473388671875 287.008514404296875 285.91656494140625 284.3321533203125 282.186065673828125 279.7900390625 277.7906494140625 276.97137451171875 277.960845947265625
131.2113800048828125 136.015899658203125 140.8759613037109375 145.7201080322265625 150.5070953369140625 155.1704864501953125 159.62554931640625 163.80255126953125 167.6062774658203125 170.9618682861328125 173.87738037109375 176.4217376708984375 178.741180419921875 181.0299530029296875 183.4261932373046875 185.9439697265625 188.4824066162109375 190.848236083984375 192.840789794921875 194.3157501220703125 195.1719970703125 195.353271484375 194.8371429443359375 193.631317138671875 191.787384033203125 189.41925048828125 186.7546234130859375 184.120697021484375 181.8892974853515625 180.42816162109375 179.913848876953125 180.23883056640625 181.1002349853515625 182.1545562744140625 183.1316986083984375 183.8454132080078125 184.1904754638671875 184.129425048828125 183.6660003662109375 182.8270721435546875 181.6537322998046875 180.2121429443359375 178.5879974365234375 176.8689422607421875 175.1911773681640625 173.703125 172.4862518310546875 171.771331787109375 171.743927001953125 172.99102783203125 175.832366943359375 179.17938232421875 182.7979736328125 186.5059356689453125 190.31915283203125 194.3242034912109375 198.5369720458984375 202.94830322265625 207.520477294921875 212.1252593994140625 216.6669464111328125 221.162353515625 225.62420654296875 230.0352325439453125 234.333892822265625 238.30084228515625 241.6804962158203125 244.3643341064453125 246.36932373046875 247.85504150390625 249.0304412841796875 250.0155792236328125 250.84765625 251.5300750732421875 252.013916015625 252.2716217041015625 252.3569793701171875 252.382293701171875 252.4930419921875 252.78924560546875 253.2371826171875 253.68707275390625 253.9988250732421875 254.0439453125 253.7052764892578125 252.8861541748046875 251.5735015869140625 249.8744964599609375 248.00555419921875 246.3291473388671875 245.2081298828125 244.81231689453125 245.043914794921875 245.5942535400390625 246.1932373046875 246.677978515625 246.98333740234375 247.1003875732421875 247.0484466552734375 246.8839111328125 246.7189483642578125 246.7368927001953125 247.1523590087890625 248.1087493896484375 249.5879058837890625 251.4371185302734375 253.5107421875 255.720947265625 258.092803955078125 260.724517822265625 263.670379638671875 266.89373779296875 270.27996826171875 273.66180419921875 276.937713623046875 280.1448974609375 283.4129638671875 286.95556640625 291.023040771484375 295.70416259765625 300.96514892578125 306.739837646484375 312.820281982421875 318.900543212890625 324.52886962890625 329.057952880859375 331.90057373046875 332.978363037109375 332.48431396484375 331.69403076171875 330.915863037109375 330.13909912109375 329.107818603515625 327.5284423828125 325.23565673828125 322.112548828125 318.0865478515625 313.29486083984375 308.040069580078125 302.747039794921875 298.079559326171875 294.699737548828125 292.818603515625 292.065643310546875 291.739837646484375 291.1939697265625 290.0029296875 288.086700439453125 285.714691162109375 283.478790283203125 282.127471923828125 282.30145263671875
137.1699981689453125 142.0970001220703125 147.05352783203125 151.9739227294921875 156.8403472900390625 161.59564208984375 166.161834716796875 170.48114013671875 174.466644287109375 178.0458984375 181.2223968505859375 184.0473480224609375 186.6334075927734375 189.133148193359375 191.64959716796875 194.189361572265625 196.670318603515625 198.9272613525390625 200.7848663330078125 202.117340087890625 202.8323516845703125 202.8746795654296875 202.2182159423828125 200.86920166015625 198.88330078125 196.3836517333984375 193.614532470703125 190.91802978515625 188.666168212890625 187.217681884765625 186.7423553466796875 187.1313018798828125 188.08587646484375 189.2631072998046875 190.38421630859375 191.241729736328125 191.7099761962890625 191.739349365234375 191.3197784423828125 190.4593048095703125 189.1768341064453125 187.5189666748046875 185.5525360107421875 183.350433349609375 181.0313568115234375 178.73455810546875 176.5931243896484375 174.8332977294921875 173.6372222900390625 173.3313751220703125 174.086883544921875 176.2803802490234375 179.0418853759765625 182.095367431640625 185.43328857421875 189.156219482421875 193.3008270263671875 197.8259124755859375 202.64154052734375 207.5459442138671875 212.376861572265625 217.106719970703125 221.71795654296875 226.1840667724609375 230.458587646484375 234.3629913330078125 237.6888275146484375 240.3570709228515625 242.405731201171875 244.0044097900390625 245.35101318359375 246.5406341552734375 247.56939697265625 248.405914306640625 248.9869537353515625 249.2894744873046875 249.3838348388671875 249.4027862548828125 249.5069732666015625 249.8009185791015625 250.2472991943359375 250.6838226318359375 250.9570159912109375 250.9258880615234375 250.4698333740234375 249.4934539794921875 247.9817352294921875 246.03704833984375 243.882720947265625 241.895355224609375 240.453857421875 239.744110107421875 239.68963623046875 239.98480224609375 240.342132568359375 240.60101318359375 240.720672607421875 240.7174530029296875 240.61932373046875 240.4660797119140625 240.3470916748046875 240.4377288818359375 240.954864501953125 242.0214080810546875 243.5540618896484375 245.3201751708984375 247.1314239501953125 248.9276885986328125 250.845123291015625 253.107208251953125 255.8807373046875 259.19818115234375 262.956329345703125 266.94415283203125 270.998565673828125 275.112884521484375 279.3487548828125 283.833648681640625 288.729949951171875 294.03668212890625 299.67877197265625 305.612335205078125 311.684600830078125 317.68450927734375 323.300445556640625 328.013031005859375 331.3135986328125 333.01641845703125 333.290557861328125 333.181610107421875 332.91912841796875 332.466705322265625 331.616546630859375 330.0946044921875 327.7076416015625 324.34857177734375 320.01434326171875 314.959136962890625 309.6004638671875 304.447784423828125 300.181671142578125 297.4022216796875 296.225189208984375 296.140655517578125 296.36407470703125 296.249725341796875 295.39727783203125 293.731842041015625 291.48748779296875 289.195465087890625 287.5350341796875 287.100921630859375
142.8934783935546875 147.9019775390625 152.953643798828125 157.9885101318359375 162.991302490234375 167.9003753662109375 172.6358795166015625 177.146575927734375 181.3530731201171875 185.18768310546875 188.65087890625 191.7752227783203125 194.634033203125 197.33306884765625 199.9358062744140625 202.4420166015625 204.79266357421875 206.8583526611328125 208.5005645751953125 209.6205291748046875 210.138702392578125 209.99774169921875 209.1638031005859375 207.6437835693359375 205.5062103271484375 202.8948822021484375 200.081024169921875 197.420166015625 195.268218994140625 193.949951171875 193.6083221435546875 194.1225433349609375 195.189971923828125 196.466644287109375 197.6749725341796875 198.6040191650390625 199.1251220703125 199.1834259033203125 198.7603607177734375 197.854156494140625 196.4690704345703125 194.6377105712890625 192.4126434326171875 189.8550567626953125 187.067047119140625 184.188140869140625 181.345550537109375 178.7797698974609375 176.6671142578125 175.22198486328125 174.5666656494140625 174.798095703125 176.474822998046875 178.6727752685546875 181.3894805908203125 184.6749114990234375 188.55975341796875 192.988372802734375 197.841766357421875 202.8738250732421875 207.8618316650390625 212.72027587890625 217.3898162841796875 221.8244171142578125 225.990386962890625 229.7578887939453125 232.9777069091796875 235.61834716796875 237.7485809326171875 239.53704833984375 241.15753173828125 242.6602935791015625 243.98028564453125 245.0429534912109375 245.7711944580078125 246.1511688232421875 246.2776031494140625 246.30718994140625 246.4174652099609375 246.7171173095703125 247.165313720703125 247.5784759521484375 247.7826995849609375 247.6306610107421875 247.0063934326171875 245.8239593505859375 244.0803680419921875 241.882537841796875 239.4593505859375 237.193450927734375 235.463470458984375 234.46441650390625 234.147918701171875 234.2154541015625 234.3766021728515625 234.48883056640625 234.5535736083984375 234.6202850341796875 234.7154083251953125 234.829925537109375 234.98748779296875 235.32110595703125 236.0513916015625 237.3098907470703125 238.9652862548828125 240.6893463134765625 242.240478515625 243.5861053466796875 245.008087158203125 246.8502197265625 249.383087158203125 252.721832275390625 256.79608154296875 261.348175048828125 266.144500732421875 271.12799072265625 276.277496337890625 281.62188720703125 287.232452392578125 293.058502197265625 299.0107421875 305.058380126953125 311.103118896484375 317.0185546875 322.58642578125 327.3717041015625 330.962921142578125 333.199249267578125 334.200836181640625 334.61785888671875 334.752655029296875 334.578033447265625 333.903350830078125 332.45770263671875 330.043853759765625 326.561248779296875 322.064971923828125 316.915679931640625 311.617279052734375 306.73504638671875 302.93780517578125 300.722625732421875 300.0855712890625 300.46160888671875 301.0577392578125 301.245391845703125 300.656341552734375 299.232391357421875 297.185150146484375 294.981719970703125 293.204254150390625 292.36431884765625
148.3187255859375 153.4077606201171875 158.590179443359375 163.797607421875 169.0015106201171875 174.1250152587890625 179.0826263427734375 183.8250885009765625 188.276031494140625 192.3728179931640625 196.11248779296875 199.5039520263671875 202.58123779296875 205.4104156494140625 208.02447509765625 210.4141845703125 212.540283203125 214.317596435546875 215.65655517578125 216.489105224609375 216.748870849609375 216.3766937255859375 215.3305816650390625 213.620635986328125 211.3401031494140625 208.667816162109375 205.91070556640625 203.434112548828125 201.5622100830078125 200.5564727783203125 200.4893951416015625 201.2058563232421875 202.3936920166015625 203.7182769775390625 204.9242095947265625 205.8235931396484375 206.302764892578125 206.30792236328125 205.8174896240234375 204.8263397216796875 203.331390380859375 201.360015869140625 198.953399658203125 196.1743011474609375 193.1085662841796875 189.907012939453125 186.6795654296875 183.620513916015625 180.8957061767578125 178.6555023193359375 177.025421142578125 176.064422607421875 175.7524871826171875 176.594940185546875 178.5985565185546875 181.2786865234375 184.6489105224609375 188.6927490234375 193.3098907470703125 198.236053466796875 203.207855224609375 208.0747222900390625 212.710479736328125 217.0315704345703125 221.009429931640625 224.5706024169921875 227.64105224609375 230.2441864013671875 232.4732513427734375 234.4897003173828125 236.4303741455078125 238.2874603271484375 239.9283599853515625 241.239898681640625 242.1349334716796875 242.6163177490234375 242.808685302734375 242.8965301513671875 243.067535400390625 243.415802001953125 243.8753662109375 244.2448272705078125 244.3436431884765625 244.0289306640625 243.199554443359375 241.790313720703125 239.8213653564453125 237.4173126220703125 234.8048553466796875 232.3485870361328125 230.412200927734375 229.194610595703125 228.6697540283203125 228.5458526611328125 228.5551910400390625 228.6080322265625 228.7719268798828125 229.1346893310546875 229.7108612060546875 230.4117431640625 231.1520538330078125 231.9603729248046875 233.0606231689453125 234.6347198486328125 236.5277557373046875 238.330291748046875 239.7548980712890625 240.7667694091796875 241.778106689453125 243.19476318359375 245.35009765625 248.4605255126953125 252.539642333984375 257.3262939453125 262.546783447265625 268.115570068359375 273.930145263671875 279.917724609375 286.0631103515625 292.28436279296875 298.49957275390625 304.6724853515625 310.7227783203125 316.5916748046875 322.11480712890625 326.9735107421875 330.804443359375 333.476470947265625 335.080657958984375 335.9827880859375 336.481475830078125 336.551605224609375 336.015716552734375 334.632965087890625 332.241912841796875 328.78448486328125 324.346649169921875 319.318939208984375 314.245849609375 309.71746826171875 306.39190673828125 304.691162109375 304.49554443359375 305.191619873046875 306.015228271484375 306.380828857421875 305.97015380859375 304.7537841796875 302.931915283203125 300.90264892578125 299.135986328125 298.03955078125
153.425048828125 158.626251220703125 163.987884521484375 169.42218017578125 174.8814239501953125 180.2701568603515625 185.494476318359375 190.5028076171875 195.2136383056640625 199.5590362548828125 203.5281219482421875 207.107452392578125 210.30242919921875 213.151458740234375 215.665771484375 217.8349609375 219.6435089111328125 221.0501861572265625 222.0092926025390625 222.4806365966796875 222.4167022705078125 221.7657623291015625 220.4831085205078125 218.589080810546875 216.2066802978515625 213.5555877685546875 210.9923858642578125 208.8838043212890625 207.4914398193359375 206.9742279052734375 207.2957763671875 208.250457763671875 209.5263671875 210.822723388671875 211.9293212890625 212.7012939453125 213.0511322021484375 212.93365478515625 212.3310394287109375 211.2398223876953125 209.652618408203125 207.605377197265625 205.125457763671875 202.2965087890625 199.2109832763671875 195.9523773193359375 192.6031951904296875 189.305908203125 186.2028961181640625 183.413177490234375 181.06005859375 179.2325897216796875 177.960479736328125 177.37005615234375 177.5848388671875 179.2868194580078125 181.8282623291015625 185.1619415283203125 189.2415924072265625 193.807037353515625 198.5684814453125 203.3093109130859375 207.818145751953125 211.9549407958984375 215.6850128173828125 218.9860382080078125 221.8709869384765625 224.43084716796875 226.780792236328125 229.053375244140625 231.323516845703125 233.5108184814453125 235.432861328125 236.95135498046875 237.9850006103515625 238.56304931640625 238.8431854248046875 239.0380706787109375 239.3301544189453125 239.769989013671875 240.241485595703125 240.5415191650390625 240.50225830078125 240.00469970703125 238.978271484375 237.38372802734375 235.266845703125 232.766845703125 230.1002960205078125 227.5983123779296875 225.595733642578125 224.2838287353515625 223.64971923828125 223.404693603515625 223.333404541015625 223.4379730224609375 223.876068115234375 224.7666473388671875 226.1009521484375 227.687591552734375 229.33172607421875 230.890472412109375 232.5523223876953125 234.5337982177734375 236.682830810546875 238.647369384765625 240.1980133056640625 241.2956695556640625 242.200958251953125 243.262847900390625 244.8495635986328125 247.3263397216796875 250.850921630859375 255.2670745849609375 260.346923828125 266.011505126953125 272.090545654296875 278.40728759765625 284.86187744140625 291.33990478515625 297.77313232421875 304.1058349609375 310.20458984375 316.06158447265625 321.586669921875 326.52777099609375 330.57965087890625 333.641754150390625 335.77484130859375 337.2064208984375 338.1439208984375 338.496307373046875 338.095672607421875 336.767578125 334.4456787109375 331.14080810546875 326.943695068359375 322.213134765625 317.497650146484375 313.404632568359375 310.573822021484375 309.35662841796875 309.536041259765625 310.456329345703125 311.391021728515625 311.8214111328125 311.494049072265625 310.420379638671875 308.80963134765625 306.998382568359375 305.335205078125 304.114105224609375
158.240264892578125 163.58544921875 169.155029296875 174.845062255859375 180.591339111328125 186.278656005859375 191.80218505859375 197.0999298095703125 202.0728759765625 206.635223388671875 210.76434326171875 214.4359283447265625 217.6385498046875 220.391937255859375 222.69683837890625 224.5543060302734375 225.977691650390625 226.96295166015625 227.4943084716796875 227.552093505859375 227.111724853515625 226.1390228271484375 224.598907470703125 222.5420074462890625 220.128570556640625 217.6118927001953125 215.3953399658203125 213.830902099609375 213.0754241943359375 213.1421356201171875 213.881011962890625 215.046844482421875 216.34539794921875 217.5300140380859375 218.451995849609375 219.0188751220703125 219.181549072265625 218.9091033935546875 218.1902618408203125 217.0348358154296875 215.42852783203125 213.438812255859375 211.0848388671875 208.419342041015625 205.4936370849609375 202.3562164306640625 199.054473876953125 195.6928863525390625 192.385528564453125 189.2261962890625 186.32769775390625 183.7894744873046875 181.6680755615234375 180.06500244140625 179.1056671142578125 178.9263916015625 180.282379150390625 182.5858917236328125 185.8436126708984375 189.800872802734375 194.15069580078125 198.6121978759765625 202.887542724609375 206.7757720947265625 210.2310028076171875 213.270111083984375 215.9707489013671875 218.4813079833984375 220.945953369140625 223.4618072509765625 226.025421142578125 228.478302001953125 230.6048583984375 232.2649383544921875 233.3946075439453125 234.0513916015625 234.4237823486328125 234.745361328125 235.1837005615234375 235.7337646484375 236.2183837890625 236.43804931640625 236.2546234130859375 235.58892822265625 234.40850830078125 232.70489501953125 230.549560546875 228.0948028564453125 225.5496978759765625 223.2128143310546875 221.377593994140625 220.190460205078125 219.618194580078125 219.388763427734375 219.3726348876953125 219.6948394775390625 220.6221923828125 222.260986328125 224.5341339111328125 227.0945587158203125 229.6477203369140625 231.9864654541015625 234.251739501953125 236.644927978515625 239.080963134765625 241.32318115234375 243.2015533447265625 244.638275146484375 245.7317352294921875 246.7193603515625 247.9012451171875 249.6133270263671875 252.112457275390625 255.499481201171875 259.774871826171875 264.930206298828125 270.7813720703125 277.05328369140625 283.572021484375 290.196136474609375 296.741943359375 303.14117431640625 309.296234130859375 315.17767333984375 320.73431396484375 325.765533447265625 330.024688720703125 333.45751953125 336.151763916015625 338.24127197265625 339.74395751953125 340.4661865234375 340.247833251953125 339.023101806640625 336.849853515625 333.78521728515625 329.918304443359375 325.5838623046875 321.327239990234375 317.777191162109375 315.5225830078125 314.793548583984375 315.27655029296875 316.3109130859375 317.24334716796875 317.6337890625 317.2984619140625 316.292999267578125 314.851959228515625 313.2685546875 311.76824951171875 310.51806640625
162.8437652587890625 168.3340911865234375 174.1003570556640625 180.035919189453125 186.0684356689453125 192.0654449462890625 197.8996734619140625 203.48553466796875 208.700836181640625 213.445556640625 217.6831817626953125 221.373626708984375 224.4944000244140625 227.0638885498046875 229.0892791748046875 230.5877227783203125 231.5990447998046875 232.147796630859375 232.238616943359375 231.865692138671875 231.025543212890625 229.708953857421875 227.9063720703125 225.71435546875 223.3434906005859375 221.07806396484375 219.34197998046875 218.431854248046875 218.367034912109375 219.0061798095703125 220.105712890625 221.4027099609375 222.638336181640625 223.630615234375 224.3033905029296875 224.6181793212890625 224.58062744140625 224.175079345703125 223.3947601318359375 222.282684326171875 220.818206787109375 219.0364227294921875 216.9470367431640625 214.5608673095703125 211.9020843505859375 208.9923553466796875 205.84814453125 202.535369873046875 199.1455841064453125 195.7635955810546875 192.496307373046875 189.4382171630859375 186.64923095703125 184.2289581298828125 182.2958526611328125 180.924072265625 180.295867919921875 181.1100921630859375 183.3465728759765625 186.4804840087890625 190.21295166015625 194.216156005859375 198.1159210205078125 201.6733245849609375 204.834320068359375 207.628570556640625 210.172149658203125 212.6507568359375 215.214935302734375 217.919952392578125 220.694915771484375 223.319580078125 225.563079833984375 227.29986572265625 228.4872589111328125 229.21026611328125 229.681365966796875 230.140655517578125 230.7208709716796875 231.3602447509765625 231.8459930419921875 231.9911041259765625 231.686798095703125 230.8900299072265625 229.6039276123046875 227.857147216796875 225.7599029541015625 223.492706298828125 221.2709197998046875 219.3638153076171875 218.0033111572265625 217.250457763671875 217.016265869140625 217.0457763671875 217.3410491943359375 218.155426025390625 219.8577880859375 222.37164306640625 225.430694580078125 228.6545257568359375 231.7940826416015625 234.7136993408203125 237.5057373046875 240.3215179443359375 243.1240081787109375 245.755279541015625 248.0679931640625 249.9357147216796875 251.3392791748046875 252.400848388671875 253.32525634765625 254.3841705322265625 255.860748291015625 257.99456787109375 261.034149169921875 265.141204833984375 270.26910400390625 276.0927734375 282.38946533203125 288.902740478515625 295.423828125 301.84039306640625 308.0386962890625 313.95361328125 319.539154052734375 324.64154052734375 329.090301513671875 332.8953857421875 336.200653076171875 339.0479736328125 341.255950927734375 342.511810302734375 342.611785888671875 341.576934814453125 339.61212158203125 336.822265625 333.3194580078125 329.4432373046875 325.718414306640625 322.787567138671875 321.153076171875 320.880828857421875 321.5731201171875 322.615570068359375 323.456573486328125 323.737640380859375 323.33966064453125 322.362213134765625 321.060699462890625 319.693084716796875 318.3818359375 317.170196533203125
167.3669891357421875 172.95953369140625 178.869781494140625 185.0073089599609375 191.296539306640625 197.5834503173828125 203.706451416015625 209.5533905029296875 214.9868011474609375 219.88751220703125 224.194976806640625 227.8507537841796875 230.8334503173828125 233.1745452880859375 234.897857666015625 236.0382080078125 236.655487060546875 236.792022705078125 236.4676666259765625 235.686065673828125 234.4599456787109375 232.81085205078125 230.765380859375 228.480010986328125 226.2250518798828125 224.305419921875 223.1214599609375 222.8662567138671875 223.423187255859375 224.5255126953125 225.8638763427734375 227.1802520751953125 228.267791748046875 229.0110015869140625 229.4166412353515625 229.487213134765625 229.30145263671875 228.8545684814453125 228.1661224365234375 227.23388671875 226.02569580078125 224.537445068359375 222.76513671875 220.6944427490234375 218.3289794921875 215.6706695556640625 212.715118408203125 209.5058441162109375 206.1166534423828125 202.6263427734375 199.1445159912109375 195.7619171142578125 192.52288818359375 189.4997711181640625 186.790557861328125 184.4926300048828125 182.7993316650390625 182.002471923828125 182.2271728515625 184.2053375244140625 187.0854339599609375 190.409393310546875 193.7421875 196.8466033935546875 199.664825439453125 202.2140960693359375 204.6190338134765625 207.07275390625 209.7073516845703125 212.5339202880859375 215.4300689697265625 218.134185791015625 220.41748046875 222.18023681640625 223.4083251953125 224.2075958251953125 224.796112060546875 225.399871826171875 226.09619140625 226.7776336669921875 227.2344818115234375 227.3030853271484375 226.90240478515625 226.013214111328125 224.6610870361328125 222.9176025390625 220.951080322265625 218.9932403564453125 217.2835693359375 216.06793212890625 215.498931884765625 215.5101318359375 215.94085693359375 216.5496063232421875 217.5512542724609375 219.2114715576171875 221.6471710205078125 224.759765625 228.263275146484375 231.8443756103515625 235.3325042724609375 238.6552886962890625 241.8736419677734375 245.0882568359375 248.271728515625 251.2996673583984375 254.0250396728515625 256.287445068359375 257.997955322265625 259.187530517578125 259.97760009765625 260.572296142578125 261.260406494140625 262.323974609375 264.1314697265625 266.938720703125 270.917449951171875 275.892120361328125 281.61474609375 287.78033447265625 294.144195556640625 300.521331787109375 306.733123779296875 312.6669921875 318.2569580078125 323.3919677734375 328.02069091796875 332.222625732421875 336.156463623046875 339.80712890625 342.8082275390625 344.72174072265625 345.2882080078125 344.546356201171875 342.829925537109375 340.328521728515625 337.1982421875 333.807098388671875 330.66986083984375 328.370086669921875 327.280609130859375 327.341827392578125 328.126861572265625 329.09197998046875 329.78515625 329.928466796875 329.4573974609375 328.503662109375 327.3311767578125 326.164581298828125 325.04998779296875 323.937713623046875
